ply
format ascii 1.0
element vertex 924
property float x
property float y
property float z
end_header
-43.1833419799805 -23.499755859375 223.480514526367
-46.516674041748 -23.6875610351563 226.813842773438
-33.1833419799805 -23.638427734375 223.480514526367
-36.516674041748 -23.6458740234375 226.813842773438
-23.1833400726318 -23.3363037109375 223.480514526367
-26.516674041748 -23.510009765625 226.813842773438
-13.1833400726318 -23.1517944335938 223.480514526367
-16.516674041748 -23.2505493164063 226.813842773438
-3.18333959579468 -20.6487426757813 223.480514526367
-6.51667308807373 -22.1030883789063 226.813842773438
6.81666088104248 -16.9548950195313 223.480514526367
3.48332738876343 -17.2730102539063 226.813842773438
16.8166618347168 -16.4563598632813 223.480514526367
13.4833278656006 -16.5343017578125 226.813842773438
26.8166618347168 -16.2890014648438 223.480514526367
23.4833278656006 -16.302734375 226.813842773438
36.8166618347168 -16.8321533203125 223.480514526367
33.4833297729492 -16.7172241210938 226.813842773438
46.8166618347168 -19.716552734375 223.480514526367
43.4833297729492 -18.522216796875 226.813842773438
56.8166618347168 -18.6587524414063 223.480514526367
53.4833297729492 -19.3843383789063 226.813842773438
66.8166656494141 -18.4691772460938 223.480514526367
63.4833297729492 -18.2426147460938 226.813842773438
76.8166656494141 -18.2745361328125 223.480514526367
73.4833297729492 -18.0452880859375 226.813842773438
86.8166656494141 -18.0772705078125 223.480514526367
83.4833297729492 -18.2488403320313 226.813842773438
96.8166656494141 -18.0267333984375 223.480514526367
93.4833297729492 -17.9049072265625 226.813842773438
106.816665649414 -17.9423217773438 223.480514526367
103.483329772949 -17.8871459960938 226.813842773438
116.816665649414 -18.0872802734375 223.480514526367
113.483329772949 -17.9186401367188 226.813842773438
126.816665649414 -18.7860107421875 223.480514526367
123.483329772949 -18.2962036132813 226.813842773438
136.816665649414 -19.1659545898438 223.480514526367
133.483337402344 -18.6760864257813 226.813842773438
146.816665649414 -19.55712890625 223.480514526367
143.483337402344 -19.0560302734375 226.813842773438
156.816665649414 -20.0398559570313 223.480514526367
153.483337402344 -19.4946899414063 226.813842773438
166.816665649414 -21.3359375 223.480514526367
163.483337402344 -20.485107421875 226.813842773438
176.816650390625 -22.9889526367188 223.480514526367
173.483322143555 -22.4605102539063 226.813842773438
186.816650390625 -23.61669921875 223.480514526367
183.483322143555 -23.0565795898438 226.813842773438
196.816650390625 -24.209716796875 223.480514526367
193.483322143555 -23.9227905273438 226.813842773438
206.816650390625 -20.841064453125 223.480514526367
203.483322143555 -23.688720703125 226.813842773438
216.816650390625 -17.7838745117188 223.480514526367
213.483322143555 -20.8416137695313 226.813842773438
226.816650390625 -16.75244140625 223.480514526367
223.483322143555 -17.8352661132813 226.813842773438
236.816650390625 -15.85693359375 223.480514526367
233.483322143555 -16.8388671875 226.813842773438
246.816650390625 -16.5797729492188 223.480514526367
243.483322143555 -15.92529296875 226.813842773438
256.816650390625 -23.7904663085938 223.480514526367
253.483322143555 -21.7932739257813 226.813842773438
266.816650390625 -22.8396606445313 223.480514526367
263.483337402344 -23.7950439453125 226.813842773438
276.816650390625 -22.15576171875 223.480514526367
273.483337402344 -22.7149658203125 226.813842773438
286.816650390625 -21.46337890625 223.480514526367
283.483337402344 -21.4180908203125 226.813842773438
296.616668701172 -19.2689819335938 223.480514526367
293.383361816406 -19.573974609375 226.813842773438
-293.183349609375 -25.4261474609375 233.480514526367
-296.516693115234 -25.445556640625 236.813842773438
-283.183349609375 -25.3870849609375 233.480514526367
-286.516693115234 -25.4183349609375 236.813842773438
-273.183349609375 -25.347900390625 233.480514526367
-276.516693115234 -25.39111328125 236.813842773438
-263.183349609375 -24.290771484375 233.480514526367
-266.516693115234 -24.4300537109375 236.813842773438
-253.183349609375 -24.8043212890625 233.480514526367
-256.516693115234 -24.41796875 236.813842773438
-243.183349609375 -25.4388427734375 233.480514526367
-246.516693115234 -25.4039306640625 236.813842773438
-233.183349609375 -25.3983154296875 233.480514526367
-236.516693115234 -25.353271484375 236.813842773438
-223.183349609375 -25.440673828125 233.480514526367
-226.516693115234 -25.4052734375 236.813842773438
-213.183349609375 -25.400146484375 233.480514526367
-216.516693115234 -25.4415283203125 236.813842773438
-203.183349609375 -25.3631591796875 233.480514526367
-206.516693115234 -25.4232177734375 236.813842773438
-193.183349609375 -25.3311767578125 233.480514526367
-196.516693115234 -25.332763671875 236.813842773438
-183.183349609375 -25.3912353515625 233.480514526367
-186.516693115234 -25.3050537109375 236.813842773438
-173.183349609375 -25.4290771484375 233.480514526367
-176.516693115234 -25.3411865234375 236.813842773438
-163.183349609375 -23.9867553710938 233.480514526367
-166.516677856445 -24.2088623046875 236.813842773438
-153.183349609375 -24.18701171875 233.480514526367
-156.516677856445 -24.1334228515625 236.813842773438
-143.183349609375 -25.3836669921875 233.480514526367
-146.516677856445 -25.27978515625 236.813842773438
-133.183349609375 -25.417236328125 233.480514526367
-136.516677856445 -25.3538818359375 236.813842773438
-123.18334197998 -25.416015625 233.480514526367
-126.516677856445 -25.4193115234375 236.813842773438
-113.18334197998 -25.4161376953125 233.480514526367
-116.516677856445 -25.414306640625 236.813842773438
-103.18334197998 -25.33837890625 233.480514526367
-106.516677856445 -25.4169921875 236.813842773438
-93.1833419799805 -25.37548828125 233.480514526367
-96.5166778564453 -25.3409423828125 236.813842773438
-83.1833419799805 -24.096923828125 233.480514526367
-86.5166778564453 -25.25927734375 236.813842773438
-73.1833419799805 -24.1180419921875 233.480514526367
-76.5166778564453 -24.1424560546875 236.813842773438
-63.1833419799805 -24.1295166015625 233.480514526367
-66.5166778564453 -24.17529296875 236.813842773438
-53.1833419799805 -23.7525024414063 233.480514526367
-56.516674041748 -23.9929809570313 236.813842773438
-43.1833419799805 -23.7303466796875 233.480514526367
-46.516674041748 -23.6384887695313 236.813842773438
-33.1833419799805 -23.7274780273438 233.480514526367
-36.516674041748 -23.6439208984375 236.813842773438
-23.1833400726318 -23.3820190429688 233.480514526367
-26.516674041748 -23.4268188476563 236.813842773438
-13.1833400726318 -22.8656616210938 233.480514526367
-16.516674041748 -22.8662719726563 236.813842773438
-3.18333959579468 -17.7986450195313 233.480514526367
-6.51667308807373 -19.5462036132813 236.813842773438
6.81666088104248 -16.78125 233.480514526367
3.48332738876343 -16.9338989257813 236.813842773438
16.8166618347168 -16.4702758789063 233.480514526367
13.4833278656006 -16.5441284179688 236.813842773438
26.8166618347168 -16.754150390625 233.480514526367
23.4833278656006 -16.5176391601563 236.813842773438
36.8166618347168 -17.2747192382813 233.480514526367
33.4833297729492 -17.38623046875 236.813842773438
46.8166618347168 -19.905517578125 233.480514526367
43.4833297729492 -19.6859130859375 236.813842773438
56.8166618347168 -18.517822265625 233.480514526367
53.4833297729492 -18.5167846679688 236.813842773438
66.8166656494141 -18.3492431640625 233.480514526367
63.4833297729492 -18.2273559570313 236.813842773438
76.8166656494141 -18.0052490234375 233.480514526367
73.4833297729492 -17.8834228515625 236.813842773438
86.8166656494141 -17.8643188476563 233.480514526367
83.4833297729492 -17.826171875 236.813842773438
96.8166656494141 -17.8109130859375 233.480514526367
93.4833297729492 -17.7727661132813 236.813842773438
106.816665649414 -17.7574462890625 233.480514526367
103.483329772949 -17.7192993164063 236.813842773438
116.816665649414 -17.7501220703125 233.480514526367
113.483329772949 -17.6658325195313 236.813842773438
126.816665649414 -17.9635009765625 233.480514526367
123.483329772949 -17.7813720703125 236.813842773438
136.816665649414 -18.089599609375 233.480514526367
133.483337402344 -17.907470703125 236.813842773438
146.816665649414 -18.4564208984375 233.480514526367
143.483337402344 -18.0335693359375 236.813842773438
156.816665649414 -18.8871459960938 233.480514526367
153.483337402344 -18.3465576171875 236.813842773438
166.816665649414 -20.4819946289063 233.480514526367
163.483337402344 -19.7677612304688 236.813842773438
176.816650390625 -21.1937866210938 233.480514526367
173.483322143555 -20.2023315429688 236.813842773438
186.816650390625 -22.9893188476563 233.480514526367
183.483322143555 -21.9132690429688 236.813842773438
196.816650390625 -23.8659057617188 233.480514526367
193.483322143555 -22.8527221679688 236.813842773438
206.816650390625 -24.15087890625 233.480514526367
203.483322143555 -23.6867065429688 236.813842773438
216.816650390625 -21.8762817382813 233.480514526367
213.483322143555 -23.4689331054688 236.813842773438
226.816650390625 -18.3095092773438 233.480514526367
223.483322143555 -19.1869506835938 236.813842773438
236.816650390625 -17.3836059570313 233.480514526367
233.483322143555 -18.1127319335938 236.813842773438
246.816650390625 -17.2614135742188 233.480514526367
243.483322143555 -17.900390625 236.813842773438
256.816650390625 -22.6245727539063 233.480514526367
253.483322143555 -18.999267578125 236.813842773438
266.816650390625 -23.7971801757813 233.480514526367
263.483337402344 -23.8275756835938 236.813842773438
276.816650390625 -22.569091796875 233.480514526367
273.483337402344 -22.743408203125 236.813842773438
286.816650390625 -20.501953125 233.480514526367
283.483337402344 -21.6505126953125 236.813842773438
296.616668701172 -18.2842407226563 233.480514526367
293.383361816406 -19.127197265625 236.813842773438
-293.183349609375 -25.4541015625 243.480514526367
-296.516693115234 -25.4552001953125 246.813842773438
-283.183349609375 -25.45849609375 243.480514526367
-286.516693115234 -25.4517822265625 246.813842773438
-273.183349609375 -25.4608154296875 243.480514526367
-276.516693115234 -25.445556640625 246.813842773438
-263.183349609375 -24.1632080078125 243.480514526367
-266.516693115234 -25.189697265625 246.813842773438
-253.183349609375 -25.384765625 243.480514526367
-256.516693115234 -25.450439453125 246.813842773438
-243.183349609375 -25.3917236328125 243.480514526367
-246.516693115234 -25.4176025390625 246.813842773438
-233.183349609375 -25.3916015625 243.480514526367
-236.516693115234 -25.3548583984375 246.813842773438
-223.183349609375 -25.3731689453125 243.480514526367
-226.516693115234 -25.3902587890625 246.813842773438
-213.183349609375 -25.4193115234375 243.480514526367
-216.516693115234 -25.3834228515625 246.813842773438
-203.183349609375 -25.443359375 243.480514526367
-206.516693115234 -25.4263916015625 246.813842773438
-193.183349609375 -25.40869140625 243.480514526367
-196.516693115234 -25.4443359375 246.813842773438
-183.183349609375 -25.271728515625 243.480514526367
-186.516693115234 -25.378173828125 246.813842773438
-173.183349609375 -25.399658203125 243.480514526367
-176.516693115234 -25.2413330078125 246.813842773438
-163.183349609375 -23.9570922851563 243.480514526367
-166.516677856445 -23.6609497070313 246.813842773438
-153.183349609375 -25.410888671875 243.480514526367
-156.516677856445 -25.3548583984375 246.813842773438
-143.183349609375 -25.3165283203125 243.480514526367
-146.516677856445 -25.3795166015625 246.813842773438
-133.183349609375 -25.285400390625 243.480514526367
-136.516677856445 -25.3974609375 246.813842773438
-123.18334197998 -25.3509521484375 243.480514526367
-126.516677856445 -25.2960205078125 246.813842773438
-113.18334197998 -25.4197998046875 243.480514526367
-116.516677856445 -25.358642578125 246.813842773438
-103.18334197998 -25.4107666015625 243.480514526367
-106.516677856445 -25.4031982421875 246.813842773438
-93.1833419799805 -25.4154052734375 243.480514526367
-96.5166778564453 -25.4090576171875 246.813842773438
-83.1833419799805 -24.09326171875 243.480514526367
-86.5166778564453 -24.0999755859375 246.813842773438
-73.1833419799805 -24.0946044921875 243.480514526367
-76.5166778564453 -24.0311279296875 246.813842773438
-63.1833419799805 -24.1649169921875 243.480514526367
-66.5166778564453 -24.1142578125 246.813842773438
-53.1833419799805 -23.8856811523438 243.480514526367
-56.516674041748 -23.896728515625 246.813842773438
-43.1833419799805 -24.0521240234375 243.480514526367
-46.516674041748 -24.0267333984375 246.813842773438
-33.1833419799805 -23.5309448242188 243.480514526367
-36.516674041748 -23.667724609375 246.813842773438
-23.1833400726318 -23.3786010742188 243.480514526367
-26.516674041748 -23.4586791992188 246.813842773438
-13.1833400726318 -22.924560546875 243.480514526367
-16.516674041748 -23.1261596679688 246.813842773438
-3.18333959579468 -17.179931640625 243.480514526367
-6.51667308807373 -17.6619873046875 246.813842773438
6.81666088104248 -16.6796875 243.480514526367
3.48332738876343 -16.7190551757813 246.813842773438
16.8166618347168 -16.4290771484375 243.480514526367
13.4833278656006 -16.34716796875 246.813842773438
26.8166618347168 -16.9100952148438 243.480514526367
23.4833278656006 -16.6986694335938 246.813842773438
36.8166618347168 -17.3601684570313 243.480514526367
33.4833297729492 -17.0996704101563 246.813842773438
46.8166618347168 -19.5151977539063 243.480514526367
43.4833297729492 -19.1973876953125 246.813842773438
56.8166618347168 -17.9837036132813 243.480514526367
53.4833297729492 -17.8601684570313 246.813842773438
66.8166656494141 -17.6815795898438 243.480514526367
63.4833297729492 -17.667724609375 246.813842773438
76.8166656494141 -17.7499389648438 243.480514526367
73.4833297729492 -17.7118530273438 246.813842773438
86.8166656494141 -17.6964721679688 243.480514526367
83.4833297729492 -17.6583862304688 246.813842773438
96.8166656494141 -17.64306640625 243.480514526367
93.4833297729492 -17.60498046875 246.813842773438
106.816665649414 -17.589599609375 243.480514526367
103.483329772949 -17.5195922851563 246.813842773438
116.816665649414 -17.5107421875 243.480514526367
113.483329772949 -17.36572265625 246.813842773438
126.816665649414 -17.3446655273438 243.480514526367
123.483329772949 -16.960693359375 246.813842773438
136.816665649414 -17.392822265625 243.480514526367
133.483337402344 -16.9432983398438 246.813842773438
146.816665649414 -17.4761962890625 243.480514526367
143.483337402344 -16.9608764648438 246.813842773438
156.816665649414 -17.6219482421875 243.480514526367
153.483337402344 -16.99072265625 246.813842773438
166.816665649414 -18.5140380859375 243.480514526367
163.483337402344 -17.6661987304688 246.813842773438
176.816650390625 -19.3565063476563 243.480514526367
173.483322143555 -18.380859375 246.813842773438
186.816650390625 -20.916015625 243.480514526367
183.483322143555 -19.7574462890625 246.813842773438
196.816650390625 -22.4620971679688 243.480514526367
193.483322143555 -21.4349975585938 246.813842773438
206.816650390625 -23.5760498046875 243.480514526367
203.483322143555 -22.8705444335938 246.813842773438
216.816650390625 -23.7774658203125 243.480514526367
213.483322143555 -24.2908935546875 246.813842773438
226.816650390625 -21.6205444335938 243.480514526367
223.483322143555 -23.0139770507813 246.813842773438
236.816650390625 -18.683837890625 243.480514526367
233.483322143555 -20.27587890625 246.813842773438
246.816650390625 -18.2932739257813 243.480514526367
243.483322143555 -18.5632934570313 246.813842773438
256.816650390625 -20.738525390625 243.480514526367
253.483322143555 -18.5578002929688 246.813842773438
266.816650390625 -23.8676147460938 243.480514526367
263.483337402344 -22.784912109375 246.813842773438
276.816650390625 -23.0231323242188 243.480514526367
273.483337402344 -23.8634033203125 246.813842773438
286.816650390625 -20.9303588867188 243.480514526367
283.483337402344 -22.0059814453125 246.813842773438
296.616668701172 -18.30517578125 243.480514526367
293.383361816406 -19.2991333007813 246.813842773438
-293.183349609375 -25.4639892578125 253.480514526367
-296.516693115234 -25.4659423828125 256.813842773438
-283.183349609375 -25.467041015625 253.480514526367
-286.516693115234 -25.469482421875 256.813842773438
-273.183349609375 -25.466064453125 253.480514526367
-276.516693115234 -25.409912109375 256.813842773438
-263.183349609375 -24.152099609375 253.480514526367
-266.516693115234 -24.73876953125 256.813842773438
-253.183349609375 -24.9140625 253.480514526367
-256.516693115234 -25.0006103515625 256.813842773438
-243.183349609375 -25.3446044921875 253.480514526367
-246.516693115234 -25.3704833984375 256.813842773438
-233.183349609375 -25.299560546875 253.480514526367
-236.516693115234 -25.2459716796875 256.813842773438
-223.183349609375 -25.39208984375 253.480514526367
-226.516693115234 -25.3182373046875 256.813842773438
-213.183349609375 -25.396728515625 253.480514526367
-216.516693115234 -25.4107666015625 256.813842773438
-203.183349609375 -25.40380859375 253.480514526367
-206.516693115234 -25.4068603515625 256.813842773438
-193.183349609375 -25.4345703125 253.480514526367
-196.516693115234 -25.4139404296875 256.813842773438
-183.183349609375 -25.4461669921875 253.480514526367
-186.516693115234 -25.4354248046875 256.813842773438
-173.183349609375 -23.8863525390625 253.480514526367
-176.516693115234 -23.5653686523438 256.813842773438
-163.183349609375 -23.8125610351563 253.480514526367
-166.516677856445 -23.9380493164063 256.813842773438
-153.183349609375 -25.36376953125 253.480514526367
-156.516677856445 -25.4222412109375 256.813842773438
-143.183349609375 -25.3690185546875 253.480514526367
-146.516677856445 -25.367919921875 256.813842773438
-133.183349609375 -25.381103515625 253.480514526367
-136.516677856445 -25.3800048828125 256.813842773438
-123.18334197998 -25.392822265625 253.480514526367
-126.516677856445 -25.3922119140625 256.813842773438
-113.18334197998 -25.3848876953125 253.480514526367
-116.516677856445 -25.4039306640625 256.813842773438
-103.18334197998 -25.3681640625 253.480514526367
-106.516677856445 -25.41796875 256.813842773438
-93.1833419799805 -25.1181640625 253.480514526367
-96.5166778564453 -25.403564453125 256.813842773438
-83.1833419799805 -23.9928588867188 253.480514526367
-86.5166778564453 -24.4571533203125 256.813842773438
-73.1833419799805 -23.9585571289063 253.480514526367
-76.5166778564453 -24.0186767578125 256.813842773438
-63.1833419799805 -23.807861328125 253.480514526367
-66.5166778564453 -23.7568969726563 256.813842773438
-53.1833419799805 -23.7720336914063 253.480514526367
-56.516674041748 -23.7265625 256.813842773438
-43.1833419799805 -23.9139404296875 253.480514526367
-46.516674041748 -23.998046875 256.813842773438
-33.1833419799805 -23.5227661132813 253.480514526367
-36.516674041748 -23.5204467773438 256.813842773438
-23.1833400726318 -23.32080078125 253.480514526367
-26.516674041748 -23.4603881835938 256.813842773438
-13.1833400726318 -22.2600708007813 253.480514526367
-16.516674041748 -22.8602905273438 256.813842773438
-3.18333959579468 -17.0424194335938 253.480514526367
-6.51667308807373 -17.6607666015625 256.813842773438
6.81666088104248 -16.3712768554688 253.480514526367
3.48332738876343 -16.4118041992188 256.813842773438
16.8166618347168 -16.2740478515625 253.480514526367
13.4833278656006 -16.1311645507813 256.813842773438
26.8166618347168 -16.67626953125 253.480514526367
23.4833278656006 -16.4730224609375 256.813842773438
36.8166618347168 -17.0361938476563 253.480514526367
33.4833297729492 -16.8848266601563 256.813842773438
46.8166618347168 -19.4080810546875 253.480514526367
43.4833297729492 -18.4085083007813 256.813842773438
56.8166618347168 -17.639892578125 253.480514526367
53.4833297729492 -18.0230102539063 256.813842773438
66.8166656494141 -17.6356201171875 253.480514526367
63.4833297729492 -17.5361938476563 256.813842773438
76.8166656494141 -17.5306396484375 253.480514526367
73.4833297729492 -17.3925170898438 256.813842773438
86.8166656494141 -17.3836059570313 253.480514526367
83.4833297729492 -17.2386474609375 256.813842773438
96.8166656494141 -17.2296752929688 253.480514526367
93.4833297729492 -17.0847778320313 256.813842773438
106.816665649414 -17.0758056640625 253.480514526367
103.483329772949 -16.9382934570313 256.813842773438
116.816665649414 -17.0695190429688 253.480514526367
113.483329772949 -16.9618530273438 256.813842773438
126.816665649414 -16.1824951171875 253.480514526367
123.483329772949 -16.0651245117188 256.813842773438
136.816665649414 -16.1650390625 253.480514526367
133.483337402344 -15.7846069335938 256.813842773438
146.816665649414 -16.1475830078125 253.480514526367
143.483337402344 -15.7671508789063 256.813842773438
156.816665649414 -16.1420288085938 253.480514526367
153.483337402344 -15.749755859375 256.813842773438
166.816665649414 -16.8541259765625 253.480514526367
163.483337402344 -16.26318359375 256.813842773438
176.816650390625 -17.5349731445313 253.480514526367
173.483322143555 -16.559326171875 256.813842773438
186.816650390625 -18.8179321289063 253.480514526367
183.483322143555 -17.6217041015625 256.813842773438
196.816650390625 -20.4551391601563 253.480514526367
193.483322143555 -18.8728637695313 256.813842773438
206.816650390625 -22.3550415039063 253.480514526367
203.483322143555 -20.54833984375 256.813842773438
216.816650390625 -24.044921875 253.480514526367
213.483322143555 -23.07763671875 256.813842773438
226.816650390625 -23.1369018554688 253.480514526367
223.483322143555 -24.2431640625 256.813842773438
236.816650390625 -20.8255004882813 253.480514526367
233.483322143555 -22.4152221679688 256.813842773438
246.816650390625 -18.9146118164063 253.480514526367
243.483322143555 -19.8192749023438 256.813842773438
256.816650390625 -18.710205078125 253.480514526367
253.483322143555 -18.9869384765625 256.813842773438
266.816650390625 -22.9801025390625 253.480514526367
263.483337402344 -23.0222778320313 256.813842773438
276.816650390625 -23.863525390625 253.480514526367
273.483337402344 -23.5194091796875 256.813842773438
286.816650390625 -22.78076171875 253.480514526367
283.483337402344 -23.0840454101563 256.813842773438
296.616668701172 -20.8694458007813 253.480514526367
293.383361816406 -20.9229125976563 256.813842773438
-293.183349609375 -25.40625 263.480529785156
-296.516693115234 -25.4581298828125 266.813842773438
-283.183349609375 -25.2550048828125 263.480529785156
-286.516693115234 -25.29150390625 266.813842773438
-273.183349609375 -25.0523681640625 263.480529785156
-276.516693115234 -25.147705078125 266.813842773438
-263.183349609375 -25.2052001953125 263.480529785156
-266.516693115234 -25.4794921875 266.813842773438
-253.183349609375 -24.972900390625 263.480529785156
-256.516693115234 -25.3446044921875 266.813842773438
-243.183349609375 -25.297607421875 263.480529785156
-246.516693115234 -24.935791015625 266.813842773438
-233.183349609375 -25.1729736328125 263.480529785156
-236.516693115234 -25.1988525390625 266.813842773438
-223.183349609375 -25.262939453125 263.480529785156
-226.516693115234 -25.18896484375 266.813842773438
-213.183349609375 -25.35546875 263.480529785156
-216.516693115234 -25.281494140625 266.813842773438
-203.183349609375 -25.424560546875 263.480529785156
-206.516693115234 -25.3740234375 266.813842773438
-193.183349609375 -25.42724609375 263.480529785156
-196.516693115234 -25.4302978515625 266.813842773438
-183.183349609375 -25.23779296875 263.480529785156
-186.516693115234 -25.4373779296875 266.813842773438
-173.183349609375 -23.9038696289063 263.480529785156
-176.516693115234 -23.8719482421875 266.813842773438
-163.183349609375 -25.4031982421875 263.480529785156
-166.516677856445 -25.216552734375 266.813842773438
-153.183349609375 -25.4161376953125 263.480529785156
-156.516677856445 -25.2877197265625 266.813842773438
-143.183349609375 -25.3778076171875 263.480529785156
-146.516677856445 -25.3818359375 266.813842773438
-133.183349609375 -25.389892578125 263.480529785156
-136.516677856445 -25.388671875 266.813842773438
-123.18334197998 -25.4019775390625 263.480529785156
-126.516677856445 -25.40087890625 266.813842773438
-113.18334197998 -25.4141845703125 263.480529785156
-116.516677856445 -25.4129638671875 266.813842773438
-103.18334197998 -25.42626953125 263.480529785156
-106.516677856445 -25.425048828125 266.813842773438
-93.1833419799805 -24.4593505859375 263.480529785156
-96.5166778564453 -25.1900634765625 266.813842773438
-83.1833419799805 -24.3856201171875 263.480529785156
-86.5166778564453 -24.4132080078125 266.813842773438
-73.1833419799805 -24.070556640625 263.480529785156
-76.5166778564453 -24.2451171875 266.813842773438
-63.1833419799805 -23.7822875976563 263.480529785156
-66.5166778564453 -23.8096923828125 266.813842773438
-53.1833419799805 -23.6513671875 263.480529785156
-56.516674041748 -23.7175903320313 266.813842773438
-43.1833419799805 -23.6494140625 263.480529785156
-46.516674041748 -23.7110595703125 266.813842773438
-33.1833419799805 -23.4798583984375 263.480529785156
-36.516674041748 -23.7738037109375 266.813842773438
-23.1833400726318 -23.1114501953125 263.480529785156
-26.516674041748 -23.2825927734375 266.813842773438
-13.1833400726318 -21.3143920898438 263.480529785156
-16.516674041748 -22.3714599609375 266.813842773438
-3.18333959579468 -17.1444091796875 263.480529785156
-6.51667308807373 -17.5574951171875 266.813842773438
6.81666088104248 -16.2169189453125 263.480529785156
3.48332738876343 -16.2900390625 266.813842773438
16.8166618347168 -16.4310302734375 263.480529785156
13.4833278656006 -16.3016357421875 266.813842773438
26.8166618347168 -16.6451416015625 263.480529785156
23.4833278656006 -16.53759765625 266.813842773438
36.8166618347168 -16.8806762695313 263.480529785156
33.4833297729492 -16.7676391601563 266.813842773438
46.8166618347168 -18.7041625976563 263.480529785156
43.4833297729492 -18.255126953125 266.813842773438
56.8166618347168 -17.2564697265625 263.480529785156
53.4833297729492 -17.4107055664063 266.813842773438
66.8166656494141 -17.1025390625 263.480529785156
63.4833297729492 -16.9576416015625 266.813842773438
76.8166656494141 -16.9486694335938 263.480529785156
73.4833297729492 -16.8037109375 266.813842773438
86.8166656494141 -16.7947998046875 263.480529785156
83.4833297729492 -16.64990234375 266.813842773438
96.8166656494141 -16.675048828125 263.480529785156
93.4833297729492 -16.54345703125 266.813842773438
106.816665649414 -16.7161865234375 263.480529785156
103.483329772949 -16.5845336914063 266.813842773438
116.816665649414 -16.4821166992188 263.480529785156
113.483329772949 -16.453857421875 266.813842773438
126.816665649414 -15.0648803710938 263.480529785156
123.483329772949 -15.31396484375 266.813842773438
136.816665649414 -15.0064086914063 263.480529785156
133.483337402344 -14.6259765625 266.813842773438
146.816665649414 -14.9889526367188 263.480529785156
143.483337402344 -14.6085205078125 266.813842773438
156.816665649414 -14.7147827148438 263.480529785156
153.483337402344 -14.3818359375 266.813842773438
166.816665649414 -15.5233154296875 263.480529785156
163.483337402344 -15.0115966796875 266.813842773438
176.816650390625 -15.5864868164063 263.480529785156
173.483322143555 -14.79736328125 266.813842773438
186.816650390625 -15.5887451171875 263.480529785156
183.483322143555 -14.9675903320313 266.813842773438
196.816650390625 -16.5736083984375 263.480529785156
193.483322143555 -15.1195068359375 266.813842773438
206.816650390625 -18.3995361328125 263.480529785156
203.483322143555 -16.1664428710938 266.813842773438
216.816650390625 -21.71728515625 263.480529785156
213.483322143555 -18.2323608398438 266.813842773438
226.816650390625 -23.7780151367188 263.480529785156
223.483322143555 -22.4728393554688 266.813842773438
236.816650390625 -22.715087890625 263.480529785156
233.483322143555 -23.718017578125 266.813842773438
246.816650390625 -20.9732055664063 263.480529785156
243.483322143555 -22.1119995117188 266.813842773438
256.816650390625 -20.26611328125 263.480529785156
253.483322143555 -21.3504638671875 266.813842773438
266.816650390625 -22.9913330078125 263.480529785156
263.483337402344 -23.1937255859375 266.813842773438
276.816650390625 -23.7067260742188 263.480529785156
273.483337402344 -23.60302734375 266.813842773438
286.816650390625 -23.2655029296875 263.480529785156
283.483337402344 -23.023193359375 266.813842773438
296.616668701172 -19.1589965820313 263.480529785156
293.383361816406 -19.3827514648438 266.813842773438
-293.183349609375 -25.4820556640625 273.480529785156
-296.516693115234 -25.4849853515625 276.813842773438
-283.183349609375 -25.4830322265625 273.480529785156
-286.516693115234 -25.4854736328125 276.813842773438
-273.183349609375 -25.483642578125 273.480529785156
-276.516693115234 -25.486083984375 276.813842773438
-263.183349609375 -25.4722900390625 273.480529785156
-266.516693115234 -25.487060546875 276.813842773438
-253.183349609375 -25.0283203125 273.480529785156
-256.516693115234 -24.9642333984375 276.813842773438
-243.183349609375 -24.9449462890625 273.480529785156
-246.516693115234 -24.9912109375 276.813842773438
-233.183349609375 -25.1260986328125 273.480529785156
-236.516693115234 -24.8956298828125 276.813842773438
-223.183349609375 -25.1336669921875 273.480529785156
-226.516693115234 -25.059814453125 276.813842773438
-213.183349609375 -25.2261962890625 273.480529785156
-216.516693115234 -25.15234375 276.813842773438
-203.183349609375 -25.3187255859375 273.480529785156
-206.516693115234 -25.244873046875 276.813842773438
-193.183349609375 -25.4112548828125 273.480529785156
-196.516693115234 -25.33740234375 276.813842773438
-183.183349609375 -24.6551513671875 273.480529785156
-186.516693115234 -24.806640625 276.813842773438
-173.183349609375 -25.2420654296875 273.480529785156
-176.516693115234 -24.3563232421875 276.813842773438
-163.183349609375 -25.333740234375 273.480529785156
-166.516677856445 -25.4442138671875 276.813842773438
-153.183349609375 -25.3087158203125 273.480529785156
-156.516677856445 -25.4083251953125 276.813842773438
-143.183349609375 -25.3907470703125 273.480529785156
-146.516677856445 -25.3553466796875 276.813842773438
-133.183349609375 -25.3985595703125 273.480529785156
-136.516677856445 -25.3973388671875 276.813842773438
-123.18334197998 -25.41064453125 273.480529785156
-126.516677856445 -25.4095458984375 276.813842773438
-113.18334197998 -25.4228515625 273.480529785156
-116.516677856445 -25.421630859375 276.813842773438
-103.18334197998 -25.427490234375 273.480529785156
-106.516677856445 -25.426025390625 276.813842773438
-93.1833419799805 -24.4683837890625 273.480529785156
-96.5166778564453 -24.61376953125 276.813842773438
-83.1833419799805 -24.30029296875 273.480529785156
-86.5166778564453 -24.29736328125 276.813842773438
-73.1833419799805 -24.1324462890625 273.480529785156
-76.5166778564453 -24.1600341796875 276.813842773438
-63.1833419799805 -23.8760986328125 273.480529785156
-66.5166778564453 -23.9920654296875 276.813842773438
-53.1833419799805 -23.7407836914063 273.480529785156
-56.516674041748 -23.7946166992188 276.813842773438
-43.1833419799805 -23.5635986328125 273.480529785156
-46.516674041748 -23.559326171875 276.813842773438
-33.1833419799805 -23.4137573242188 273.480529785156
-36.516674041748 -23.4208984375 276.813842773438
-23.1833400726318 -23.0853881835938 273.480529785156
-26.516674041748 -23.1223754882813 276.813842773438
-13.1833400726318 -19.6797485351563 273.480529785156
-16.516674041748 -21.2074584960938 276.813842773438
-3.18333959579468 -16.6014404296875 273.480529785156
-6.51667308807373 -17.0220336914063 276.813842773438
6.81666088104248 -16.0999755859375 273.480529785156
3.48332738876343 -16.55126953125 276.813842773438
16.8166618347168 -16.1260986328125 273.480529785156
13.4833278656006 -15.9125366210938 276.813842773438
26.8166618347168 -16.3775024414063 273.480529785156
23.4833278656006 -16.1639404296875 276.813842773438
36.8166618347168 -16.6289672851563 273.480529785156
33.4833297729492 -16.4154052734375 276.813842773438
46.8166618347168 -18.3101806640625 273.480529785156
43.4833297729492 -16.432861328125 276.813842773438
56.8166618347168 -16.541015625 273.480529785156
53.4833297729492 -17.8561401367188 276.813842773438
66.8166656494141 -16.5137329101563 273.480529785156
63.4833297729492 -16.3688354492188 276.813842773438
76.8166656494141 -16.35986328125 273.480529785156
73.4833297729492 -16.2149047851563 276.813842773438
86.8166656494141 -16.2801513671875 273.480529785156
83.4833297729492 -16.1485595703125 276.813842773438
96.8166656494141 -16.3212280273438 273.480529785156
93.4833297729492 -16.1896362304688 276.813842773438
106.816665649414 -16.292724609375 273.480529785156
103.483329772949 -16.17822265625 276.813842773438
116.816665649414 -15.8121337890625 273.480529785156
113.483329772949 -15.8710327148438 276.813842773438
126.816665649414 -14.3137817382813 273.480529785156
123.483329772949 -14.5628662109375 276.813842773438
136.816665649414 -13.8477172851563 273.480529785156
133.483337402344 -13.4673461914063 276.813842773438
146.816665649414 -13.703369140625 273.480529785156
143.483337402344 -13.3641967773438 276.813842773438
156.816665649414 -13.500244140625 273.480529785156
153.483337402344 -13.0975341796875 276.813842773438
166.816665649414 -13.8447875976563 273.480529785156
163.483337402344 -13.4463500976563 276.813842773438
176.816650390625 -13.6165771484375 273.480529785156
173.483322143555 -13.001220703125 276.813842773438
186.816650390625 -13.5726928710938 273.480529785156
183.483322143555 -12.977783203125 276.813842773438
196.816650390625 -13.5873413085938 273.480529785156
193.483322143555 -12.4909057617188 276.813842773438
206.816650390625 -13.3985595703125 273.480529785156
203.483322143555 -12.3403930664063 276.813842773438
216.816650390625 -14.0725708007813 273.480529785156
213.483322143555 -12.3878784179688 276.813842773438
226.816650390625 -20.0484008789063 273.480529785156
223.483322143555 -13.8182373046875 276.813842773438
236.816650390625 -24.0364990234375 273.480529785156
233.483322143555 -23.59326171875 276.813842773438
246.816650390625 -23.3732299804688 273.480529785156
243.483322143555 -23.836669921875 276.813842773438
256.816650390625 -23.1611328125 273.480529785156
253.483322143555 -23.8821411132813 276.813842773438
266.816650390625 -23.2515869140625 273.480529785156
263.483337402344 -23.6792602539063 276.813842773438
276.816650390625 -23.8361206054688 273.480529785156
273.483337402344 -23.9395141601563 276.813842773438
286.816650390625 -22.8400268554688 273.480529785156
283.483337402344 -23.3142700195313 276.813842773438
296.616668701172 -16.3455200195313 273.480529785156
293.383361816406 -16.9838256835938 276.813842773438
-293.183349609375 -25.490234375 283.480529785156
-296.516693115234 -25.4927978515625 286.813842773438
-283.183349609375 -25.4910888671875 283.480529785156
-286.516693115234 -25.49365234375 286.813842773438
-273.183349609375 -25.4920654296875 283.480529785156
-276.516693115234 -25.494384765625 286.813842773438
-263.183349609375 -24.6641845703125 283.480529785156
-266.516693115234 -24.5738525390625 286.813842773438
-253.183349609375 -25.41943359375 283.480529785156
-256.516693115234 -25.466064453125 286.813842773438
-243.183349609375 -25.0003662109375 283.480529785156
-246.516693115234 -25.1800537109375 286.813842773438
-233.183349609375 -24.913330078125 283.480529785156
-236.516693115234 -24.9632568359375 286.813842773438
-223.183349609375 -25.0045166015625 283.480529785156
-226.516693115234 -24.9803466796875 286.813842773438
-213.183349609375 -25.0970458984375 283.480529785156
-216.516693115234 -25.0230712890625 286.813842773438
-203.183349609375 -25.1895751953125 283.480529785156
-206.516693115234 -25.1156005859375 286.813842773438
-193.183349609375 -25.4344482421875 283.480529785156
-196.516693115234 -25.3492431640625 286.813842773438
-183.183349609375 -24.4671630859375 283.480529785156
-186.516693115234 -24.737548828125 286.813842773438
-173.183349609375 -25.3795166015625 283.480529785156
-176.516693115234 -25.410400390625 286.813842773438
-163.183349609375 -25.4337158203125 283.480529785156
-166.516677856445 -25.432861328125 286.813842773438
-153.183349609375 -25.410888671875 283.480529785156
-156.516677856445 -25.406005859375 286.813842773438
-143.183349609375 -25.373291015625 283.480529785156
-146.516677856445 -25.369873046875 286.813842773438
-133.183349609375 -25.4072265625 283.480529785156
-136.516677856445 -25.4088134765625 286.813842773438
-123.18334197998 -25.4193115234375 283.480529785156
-126.516677856445 -25.418212890625 286.813842773438
-113.18334197998 -25.424072265625 283.480529785156
-116.516677856445 -25.4244384765625 286.813842773438
-103.18334197998 -25.1083984375 283.480529785156
-106.516677856445 -25.227294921875 286.813842773438
-93.1833419799805 -24.2486572265625 283.480529785156
-96.5166778564453 -24.6807861328125 286.813842773438
-83.1833419799805 -24.013427734375 283.480529785156
-86.5166778564453 -23.9290771484375 286.813842773438
-73.1833419799805 -23.8931884765625 283.480529785156
-76.5166778564453 -23.8185424804688 286.813842773438
-63.1833419799805 -23.7728881835938 283.480529785156
-66.5166778564453 -23.6983032226563 286.813842773438
-53.1833419799805 -23.6068725585938 283.480529785156
-56.516674041748 -23.75732421875 286.813842773438
-43.1833419799805 -23.3521118164063 283.480529785156
-46.516674041748 -23.4263305664063 286.813842773438
-33.1833419799805 -23.1864624023438 283.480529785156
-36.516674041748 -23.1951293945313 286.813842773438
-23.1833400726318 -22.9472045898438 283.480529785156
-26.516674041748 -22.9307861328125 286.813842773438
-13.1833400726318 -19.245849609375 283.480529785156
-16.516674041748 -20.8590087890625 286.813842773438
-3.18333959579468 -17.413818359375 283.480529785156
-6.51667308807373 -19.258544921875 286.813842773438
6.81666088104248 -16.3612060546875 283.480529785156
3.48332738876343 -16.8125610351563 286.813842773438
16.8166618347168 -15.7369384765625 283.480529785156
13.4833278656006 -15.7198486328125 286.813842773438
26.8166618347168 -15.9883422851563 283.480529785156
23.4833278656006 -15.77490234375 286.813842773438
36.8166618347168 -15.9262084960938 283.480529785156
33.4833297729492 -15.6908569335938 286.813842773438
46.8166618347168 -17.0482177734375 283.480529785156
43.4833297729492 -16.2711181640625 286.813842773438
56.8166618347168 -17.45654296875 283.480529785156
53.4833297729492 -17.8339233398438 286.813842773438
66.8166656494141 -15.9249877929688 283.480529785156
63.4833297729492 -16.1871948242188 286.813842773438
76.8166656494141 -15.8853149414063 283.480529785156
73.4833297729492 -15.7536010742188 286.813842773438
86.8166656494141 -15.9263916015625 283.480529785156
83.4833297729492 -15.7947998046875 286.813842773438
96.8166656494141 -15.967529296875 283.480529785156
93.4833297729492 -15.8358764648438 286.813842773438
106.816665649414 -15.8037719726563 283.480529785156
103.483329772949 -15.7410888671875 286.813842773438
116.816665649414 -15.0609741210938 283.480529785156
113.483329772949 -15.25537109375 286.813842773438
126.816665649414 -13.5626831054688 283.480529785156
123.483329772949 -13.8118286132813 286.813842773438
136.816665649414 -12.6890869140625 283.480529785156
133.483337402344 -12.3134765625 286.813842773438
146.816665649414 -12.4190063476563 283.480529785156
143.483337402344 -12.079833984375 286.813842773438
156.816665649414 -12.2962036132813 283.480529785156
153.483337402344 -11.8131713867188 286.813842773438
166.816665649414 -12.1663208007813 283.480529785156
163.483337402344 -11.7794189453125 286.813842773438
176.816650390625 -11.7401733398438 283.480529785156
173.483322143555 -11.3226928710938 286.813842773438
186.816650390625 -11.0099487304688 283.480529785156
183.483322143555 -10.6541137695313 286.813842773438
196.816650390625 -10.1473999023438 283.480529785156
193.483322143555 -9.0509033203125 286.813842773438
206.816650390625 -9.91656494140625 283.480529785156
203.483322143555 -8.866455078125 286.813842773438
216.816650390625 -8.6363525390625 283.480529785156
213.483322143555 -7.4329833984375 286.813842773438
226.816650390625 -8.72735595703125 283.480529785156
223.483322143555 -7.0101318359375 286.813842773438
236.816650390625 -17.7742919921875 283.480529785156
233.483322143555 -12.0593872070313 286.813842773438
246.816650390625 -23.7896728515625 283.480529785156
243.483322143555 -17.2687377929688 286.813842773438
256.816650390625 -23.8021850585938 283.480529785156
253.483322143555 -20.098388671875 286.813842773438
266.816650390625 -23.3621826171875 283.480529785156
263.483337402344 -19.3233032226563 286.813842773438
276.816650390625 -22.8919067382813 283.480529785156
273.483337402344 -19.5877075195313 286.813842773438
286.816650390625 -18.60986328125 283.480529785156
283.483337402344 -18.120361328125 286.813842773438
296.616668701172 -10.6533813476563 283.480529785156
293.383361816406 -12.8722534179688 286.813842773438
-293.183349609375 -25.4979248046875 293.382415771484
-296.516693115234 -25.500244140625 296.617614746094
-283.183349609375 -25.499267578125 293.382415771484
-286.516693115234 -25.5009765625 296.617614746094
-273.183349609375 -25.5001220703125 293.382415771484
-276.516693115234 -25.502197265625 296.617614746094
-263.183349609375 -24.8443603515625 293.382415771484
-266.516693115234 -24.698486328125 296.617614746094
-253.183349609375 -25.443115234375 293.382415771484
-256.516693115234 -25.4368896484375 296.617614746094
-243.183349609375 -25.2652587890625 293.382415771484
-246.516693115234 -25.33837890625 296.617614746094
-233.183349609375 -25.0032958984375 293.382415771484
-236.516693115234 -25.133544921875 296.617614746094
-223.183349609375 -24.90771484375 293.382415771484
-226.516693115234 -24.939208984375 296.617614746094
-213.183349609375 -24.9742431640625 293.382415771484
-216.516693115234 -24.89111328125 296.617614746094
-203.183349609375 -25.1019287109375 293.382415771484
-206.516693115234 -24.9385986328125 296.617614746094
-193.183349609375 -25.0645751953125 293.382415771484
-196.516693115234 -25.0579833984375 296.617614746094
-183.183349609375 -25.4378662109375 293.382415771484
-186.516693115234 -25.3485107421875 296.617614746094
-173.183349609375 -25.364501953125 293.382415771484
-176.516693115234 -25.369873046875 296.617614746094
-163.183349609375 -25.41943359375 293.382415771484
-166.516677856445 -25.4058837890625 296.617614746094
-153.183349609375 -25.42041015625 293.382415771484
-156.516677856445 -25.4130859375 296.617614746094
-143.183349609375 -25.4127197265625 293.382415771484
-146.516677856445 -25.4161376953125 296.617614746094
-133.183349609375 -25.4173583984375 293.382415771484
-136.516677856445 -25.4173583984375 296.617614746094
-123.18334197998 -25.4251708984375 293.382415771484
-126.516677856445 -25.4254150390625 296.617614746094
-113.18334197998 -25.4349365234375 293.382415771484
-116.516677856445 -25.4312744140625 296.617614746094
-103.18334197998 -25.4158935546875 293.382415771484
-106.516677856445 -25.4332275390625 296.617614746094
-93.1833419799805 -24.2403564453125 293.382415771484
-96.5166778564453 -24.43994140625 296.617614746094
-83.1833419799805 -23.6615600585938 293.382415771484
-86.5166778564453 -23.6676025390625 296.617614746094
-73.1833419799805 -23.5524291992188 293.382415771484
-76.5166778564453 -23.4725952148438 296.617614746094
-63.1833419799805 -23.7486572265625 293.382415771484
-66.5166778564453 -23.6481323242188 296.617614746094
-53.1833419799805 -23.6471557617188 293.382415771484
-56.516674041748 -23.82080078125 296.617614746094
-43.1833419799805 -23.3436889648438 293.382415771484
-46.516674041748 -23.4173583984375 296.617614746094
-33.1833419799805 -22.9967041015625 293.382415771484
-36.516674041748 -23.099365234375 296.617614746094
-23.1833400726318 -22.3930053710938 293.382415771484
-26.516674041748 -23.015869140625 296.617614746094
-13.1833400726318 -21.9515991210938 293.382415771484
-16.516674041748 -21.4898681640625 296.617614746094
-3.18333959579468 -19.2496948242188 293.382415771484
-6.51667308807373 -21.2887573242188 296.617614746094
6.81666088104248 -16.5040893554688 293.382415771484
3.48332738876343 -17.66650390625 296.617614746094
16.8166618347168 -15.527099609375 293.382415771484
13.4833278656006 -15.8482055664063 296.617614746094
26.8166618347168 -15.390625 293.382415771484
23.4833278656006 -15.2507934570313 296.617614746094
36.8166618347168 -15.0880737304688 293.382415771484
33.4833297729492 -14.829833984375 296.617614746094
46.8166618347168 -15.8427124023438 293.382415771484
43.4833297729492 -14.9905395507813 296.617614746094
56.8166618347168 -17.8612060546875 293.382415771484
53.4833297729492 -16.046630859375 296.617614746094
66.8166656494141 -16.5934448242188 293.382415771484
63.4833297729492 -17.2185668945313 296.617614746094
76.8166656494141 -15.9323120117188 293.382415771484
73.4833297729492 -16.8626098632813 296.617614746094
86.8166656494141 -15.5761108398438 293.382415771484
83.4833297729492 -15.9948120117188 296.617614746094
96.8166656494141 -15.5060424804688 293.382415771484
93.4833297729492 -15.40673828125 296.617614746094
106.816665649414 -15.2296142578125 293.382415771484
103.483329772949 -15.1968383789063 296.617614746094
116.816665649414 -14.3173217773438 293.382415771484
113.483329772949 -14.57373046875 296.617614746094
126.816665649414 -12.900634765625 293.382415771484
123.483329772949 -13.1825561523438 296.617614746094
136.816665649414 -11.5969848632813 293.382415771484
133.483337402344 -11.7809448242188 296.617614746094
146.816665649414 -11.1473388671875 293.382415771484
143.483337402344 -10.8309326171875 296.617614746094
156.816665649414 -10.9757080078125 293.382415771484
153.483337402344 -10.5372314453125 296.617614746094
166.816665649414 -10.5042114257813 293.382415771484
163.483337402344 -10.11669921875 296.617614746094
176.816650390625 -9.84539794921875 293.382415771484
173.483322143555 -9.3216552734375 296.617614746094
186.816650390625 -8.4110107421875 293.382415771484
183.483322143555 -7.885498046875 296.617614746094
196.816650390625 -6.75439453125 293.382415771484
193.483322143555 -6.55157470703125 296.617614746094
206.816650390625 -5.79266357421875 293.382415771484
203.483322143555 -4.82244873046875 296.617614746094
216.816650390625 -4.091552734375 293.382415771484
213.483322143555 -3.59002685546875 296.617614746094
226.816650390625 -6.0020751953125 293.382415771484
223.483322143555 -4.19488525390625 296.617614746094
236.816650390625 -11.3132934570313 293.382415771484
233.483322143555 -7.44244384765625 296.617614746094
246.816650390625 -9.24554443359375 293.382415771484
243.483322143555 -11.5994873046875 296.617614746094
256.816650390625 -10.9220581054688 293.382415771484
253.483322143555 -7.48443603515625 296.617614746094
266.816650390625 -12.0473022460938 293.382415771484
263.483337402344 -8.46533203125 296.617614746094
276.816650390625 -12.6297607421875 293.382415771484
273.483337402344 -9.44549560546875 296.617614746094
286.816650390625 -16.1610107421875 293.382415771484
283.483337402344 -12.202880859375 296.617614746094
296.616668701172 -8.73406982421875 293.382415771484
293.383361816406 -12.0020751953125 296.617614746094
37.4892883300781 10.000244140625 -299.845794677734
299.344635009766 10.0065307617188 -234.608581542969
299.088958740234 10.2269287109375 -232.242797851563
299.697204589844 9.72259521484375 -236.626556396484
299.497436523438 10.2432250976563 -232.986618041992
38.3760643005371 10.28955078125 -299.847381591797
299.752166748047 10.2662963867188 -233.336090087891
257.22998046875 8.9803466796875 -153.938507080078
253.235214233398 10.7332763671875 -157.129943847656
34.7369995117188 9.07366943359375 -299.06640625
35.0415573120117 9.09747314453125 -299.845825195313
299.599365234375 9.99224853515625 -234.958053588867
295.171478271484 9.4796142578125 -199.066253662109
299.184814453125 8.71588134765625 -202.82731628418
